-12.9218 -0.211335 17.7831 16.9224 
-9.17619 -3.62071 17.7438 16.0741 
-16.6169 -7.5111 18.3255 22.6469 
-20.3323 -4.13408 22.3132 26.1665 
-12.9759 -0.191581 21.8077 20.0093 
-16.4909 -7.74797 20.0741 23.7022 
-16.7998 -3.79761 24.0535 24.9365 
-13.1281 0.0154902 20.0808 18.6963 
-12.7631 -3.92498 16.0444 17.0502 
-16.4786 -3.68282 20.0456 21.9075 
-9.44259 -7.58136 16.0702 17.3992 
-13.1426 -4.02293 20.0863 20.0051 
-20.1592 -0.175553 24.0516 26.2397 
-14.7833 -0.154878 22.211 21.368 
-18.4639 -4.05945 21.8724 24.5668 
-14.8073 -7.52555 17.8736 21.2591 
-11.0914 -3.67334 18.2561 17.419 
-14.7575 -3.63181 22.2271 22.3357 
-18.5409 -7.57309 21.9149 26.0366 
-14.8173 -4.06718 17.8727 19.5701 
-11.0702 -0.164264 18.2511 16.1217 
-20.1542 -1.97777 21.9181 25.177 
-13.1292 -5.88831 22.1724 22.3208 
-9.38938 -5.75436 18.1668 17.6017 
-16.4529 -1.84359 17.9132 19.9289 
-13.1322 -1.99327 18.066 17.8009 
-12.7472 -5.87161 18.047 19.2619 
-16.4136 -5.70384 22.0681 23.9979 
-16.9349 -1.8725 22.1097 23.0527 
12.9435 4.20801 -10.2571 21.8128 
12.9496 0.331281 -9.65761 21.7294 
16.7083 3.63659 -13.7324 26.9296 
16.6939 7.58442 -14.2498 27.4987 
20.4395 4.17505 -14.2891 29.9901 
12.9987 0.284654 -13.7074 24.8045 
9.28331 3.66167 -9.71969 19.0833 
16.6397 7.60417 -10.2252 24.6869 
13.1247 0.047788 -11.9588 23.5778 
12.8159 3.99815 -7.97943 20.1074 
16.4876 7.81124 -11.9521 25.758 
16.8525 3.87078 -15.9885 28.6951 
13.137 4.11293 -11.9873 23.2378 
20.1731 0.214391 -15.9627 31.2001 
16.4731 3.77283 -11.9467 25.4942 
9.45642 7.6202 -7.98133 18.1276 
14.8324 7.64088 -9.82189 23.0942 
11.1518 3.7363 -10.1605 20.569 
14.8083 0.270209 -14.1593 26.2724 
18.5243 4.12242 -13.7768 28.2377 
14.8581 4.16395 -9.80577 22.8455 
11.0748 0.222662 -10.118 20.8661 
14.7984 3.72858 -14.1602 25.9744 
18.5454 7.63149 -13.7818 28.4629 
9.46149 5.81799 -10.1149 19.5668 
16.4864 1.90744 -9.86051 24.208 
20.2263 2.0414 -13.8661 29.6285 
13.1628 5.95216 -14.1197 24.9808 
16.4835 5.80249 -13.9669 26.9872 
16.8684 1.92414 -13.9859 27.3132 
13.202 2.09191 -9.96484 21.8798 
12.6807 5.92325 -9.92327 21.458 
5.53955 4.20801 -2.24883 10.9064 
5.54573 0.331281 -1.64938 11.1727 
9.30443 3.63659 -5.72414 16.0293 
9.28999 7.58442 -6.24158 16.7285 
13.0356 4.17505 -6.28092 19.1567 
5.59482 0.284654 -5.69919 14.2243 
1.8794 3.66167 -1.71146 8.37425 
9.23581 7.60417 -2.21701 14.0844 
5.72082 0.047788 -3.95055 13.0048 
5.41196 3.99815 0.0287976 9.26438 
9.08368 7.81124 -3.94391 15.0664 
9.4486 3.87078 -7.98029 17.801 
5.7331 4.11293 -3.9791 12.3519 
12.7692 0.214391 -7.9545 20.449 
9.06915 3.77283 -3.93842 14.6212 
2.05251 7.6202 0.0268996 7.73605 
7.42844 7.64088 -1.81366 12.4696 
3.74784 3.7363 -2.15226 9.71152 
7.40443 0.270209 -6.15106 15.5973 
11.1204 4.12242 -5.76858 17.3639 
7.4542 4.16395 -1.79754 11.9977 
3.67086 0.222662 -2.10974 10.4137 
7.39446 3.72858 -6.15197 15.0942 
11.1415 7.63149 -5.77358 17.7167 
2.05758 5.81799 -2.10662 8.93577 
9.08251 1.90744 -1.85228 13.5301 
12.8224 2.0414 -5.85787 18.8509 
5.75889 5.95216 -6.11151 14.2153 
9.07955 5.80249 -5.95864 16.1129 
9.46452 1.92414 -5.97769 16.4718 
5.79813 2.09191 -1.95661 11.0783 
5.2768 5.92325 -1.91504 10.6224 
-1.86436 4.20801 5.7594 0 
-1.85819 0.331281 6.35886 3.9228 
1.90051 3.63659 2.28409 5.15544 
1.88608 7.58442 1.76665 6.43491 
5.63164 4.17505 1.72731 8.51169 
-1.8091 0.284654 2.30904 5.22501 
-5.52452 3.66167 6.29677 3.73951 
1.83189 7.60417 5.79122 5.01969 
-1.68309 0.047788 4.05768 4.49846 
-1.99196 3.99815 8.03703 2.29083 
1.67977 7.81124 4.06432 5.3308 
2.04469 3.87078 0.0279407 6.94579 
-1.67081 4.11293 4.02913 1.74365 
5.36524 0.214391 0.0537272 10.0385 
1.66523 3.77283 4.06981 3.93728 
-5.35141 7.6202 8.03513 5.38345 
0.02453 7.64088 6.19457 3.94232 
-3.65607 3.7363 5.85597 1.85528 
0.000511485 0.270209 1.85717 5.84905 
3.71646 4.12242 2.23965 6.5986 
0.050283 4.16395 6.21069 1.96761 
-3.73306 0.222662 5.89849 4.4039 
-0.00945759 3.72858 1.85626 4.34799 
3.73759 7.63149 2.23465 7.45158 
-5.34634 5.81799 5.90161 3.8388 
1.67859 1.90744 6.15595 4.24292 
5.41845 2.0414 2.15036 8.41182 
-1.64502 5.95216 1.89672 4.24388 
1.67563 5.80249 2.04959 5.36998 
2.0606 1.92414 2.03054 5.87586 
-1.60579 2.09191 6.05162 2.15177 
-2.12712 5.92325 6.09319 1.76707 
-9.26828 4.20801 13.7676 10.9064 
-9.2621 0.331281 14.3671 11.9937 
-5.5034 3.63659 10.2923 5.84093 
-5.51784 7.58442 9.77488 6.39313 
-1.77228 4.17505 9.73554 3.97735 
-9.21301 0.284654 10.3173 9.49576 
-12.9284 3.66167 14.305 13.9907 
-5.57202 7.60417 13.7995 9.48278 
-9.087 0.047788 12.0659 10.4521 
-9.39587 3.99815 16.0453 12.7502 
-5.72415 7.81124 12.0726 8.23026 
-5.35923 3.87078 8.03617 4.18467 
-9.07472 4.11293 12.0374 9.56092 
-2.03868 0.214391 8.06196 4.61315 
-5.73868 3.77283 12.078 7.42461 
-12.7553 7.6202 16.0434 15.3628 
-7.37938 7.64088 14.2028 10.6532 
-11.06 3.7363 13.8642 12.2666 
-7.4034 0.270209 9.8654 7.94018 
-3.68745 4.12242 10.2479 4.84536 
-7.35363 4.16395 14.2189 10.0845 
-11.137 0.222662 13.9067 12.9709 
-7.41337 3.72858 9.86449 6.91904 
-3.66632 7.63149 10.2429 5.9219 
-12.7503 5.81799 13.9098 13.694 
-5.72532 1.90744 14.1642 9.531 
-1.98546 2.0414 10.1586 4.90528 
-9.04894 5.95216 9.90495 8.47619 
-5.72828 5.80249 10.0578 5.99572 
-5.34331 1.92414 10.0388 5.96927 
-9.0097 2.09191 14.0598 11.1549 
-9.53103 5.92325 14.1014 11.459 
-16.6722 4.20801 21.7759 21.8128 
-16.666 0.331281 22.3753 22.5878 
-12.9073 3.63659 18.3006 16.7199 
-12.9218 7.58442 17.7831 16.6804 
-9.17619 4.17505 17.7438 14.0388 
-16.6169 0.284654 18.3255 19.7721 
-20.3323 3.66167 22.3132 24.8071 
-12.9759 7.60417 21.8077 19.8128 
-16.4909 0.047788 20.0741 20.8843 
-16.7998 3.99815 24.0535 23.6175 
-13.1281 7.81124 20.0808 18.573 
-12.7631 3.87078 16.0444 14.9893 
-16.4786 4.11293 20.0456 20.4373 
-9.44259 0.214391 16.0702 13.4049 
-13.1426 3.77283 20.0863 18.2386 
-20.1592 7.6202 24.0516 26.095 
-14.7833 7.64088 22.211 21.1976 
-18.4639 3.7363 21.8724 23.1386 
-14.8073 0.270209 17.8736 18.1599 
-11.0914 4.12242 18.2561 15.5342 
-14.7575 4.16395 22.2271 20.9147 
-18.5409 0.222662 21.9149 23.5582 
-14.8173 3.72858 17.8727 17.7409 
-11.0702 7.63149 18.2511 15.8906 
-20.1542 5.81799 21.9181 24.4584 
-13.1292 1.90744 22.1724 20.0394 
-9.38938 2.0414 18.1668 14.6719 
-16.4529 5.95216 17.9132 19.0678 
-13.1322 5.80249 18.066 16.7619 
-12.7472 1.92414 18.047 16.5722 
-16.4136 2.09191 22.0681 21.9575 
-16.9349 5.92325 22.1097 22.3024 
12.9435 12.0038 -10.2571 23.164 
12.9496 8.12703 -9.65761 21.737 
16.7083 11.4323 -13.7324 27.8759 
16.6939 15.3802 -14.2498 29.4889 
20.4395 11.9708 -14.2891 30.9785 
12.9987 8.08041 -13.7074 24.7965 
9.28331 11.4574 -9.71969 20.4065 
16.6397 15.3999 -10.2252 26.8918 
13.1247 7.84354 -11.9588 23.4909 
12.8159 11.7939 -7.97943 21.4898 
16.4876 15.607 -11.9521 27.9362 
16.8525 11.6665 -15.9885 29.6466 
13.137 11.9087 -11.9873 24.4804 
20.1731 8.01014 -15.9627 31.1762 
16.4731 11.5686 -11.9467 26.5319 
9.45642 15.416 -7.98133 21.0377 
14.8324 15.4366 -9.82189 25.4488 
11.1518 11.5321 -10.1605 21.829 
14.8083 8.06596 -14.1593 26.2606 
18.5243 11.9182 -13.7768 29.2713 
14.8581 11.9597 -9.80577 24.1248 
11.0748 8.01842 -10.118 20.8334 
14.7984 11.5243 -14.1602 26.9808 
18.5454 15.4272 -13.7818 30.4021 
9.46149 13.6137 -10.1149 21.6503 
16.4864 9.7032 -9.86051 24.717 
20.2263 9.83715 -13.8661 30.0806 
13.1628 13.7479 -14.1197 26.6834 
16.4835 13.5982 -13.9669 28.5297 
16.8684 9.71989 -13.9859 27.7701 
13.202 9.88767 -9.96484 22.5057 
12.6807 13.719 -9.92327 23.4086 
5.53955 12.0038 -2.24883 13.4061 
5.54573 8.12703 -1.64938 11.1874 
9.30443 11.4323 -5.72414 17.5728 
9.28999 15.3802 -6.24158 19.8308 
13.0356 11.9708 -6.28092 20.6697 
5.59482 8.08041 -5.69919 14.2104 
1.8794 11.4574 -1.71146 11.0627 
9.23581 15.3999 -2.21701 17.6662 
5.72082 7.84354 -3.95055 12.8466 
5.41196 11.7939 0.0287976 11.9721 
9.08368 15.607 -3.94391 18.5459 
9.4486 11.6665 -7.98029 19.2975 
5.7331 11.9087 -3.9791 14.5554 
12.7692 8.01014 -7.9545 20.4124 
9.06915 11.5686 -3.93842 16.3636 
2.05251 15.416 0.0268996 13.1841 
7.42844 15.4366 -1.81366 16.4253 
3.74784 11.5321 -2.15226 12.1545 
7.40443 8.06596 -6.15106 15.5773 
11.1204 11.9182 -5.76858 18.9985 
7.4542 11.9597 -1.79754 14.284 
3.67086 8.01842 -2.10974 10.348 
7.39446 11.5243 -6.15197 16.7671 
11.1415 15.4272 -5.77358 20.689 
2.05758 13.6137 -2.10662 12.8734 
9.08251 9.7032 -1.85228 14.4211 
12.8224 9.83715 -5.85787 19.5537 
5.75889 13.7479 -6.11151 17.0306 
9.07955 13.5982 -5.95864 18.5811 
9.46452 9.71989 -5.97769 17.2187 
5.79813 9.88767 -1.95661 12.2682 
5.2768 13.719 -1.91504 14.1546 
-1.86436 12.0038 5.7594 7.79575 
-1.85819 8.12703 6.35886 3.96461 
1.90051 11.4323 2.28409 8.85681 
1.88608 15.3802 1.76665 12.4429 
5.63164 11.9708 1.72731 11.5199 
-1.8091 8.08041 2.30904 5.18686 
-5.52452 11.4574 6.29677 8.13877 
1.83189 15.3999 5.79122 11.7865 
-1.68309 7.84354 4.05768 4.01818 
-1.99196 11.7939 8.03703 7.92147 
1.67977 15.607 4.06432 12.057 
2.04469 11.6665 0.0279407 10.1863 
-1.67081 11.9087 4.02913 7.89504 
5.36524 8.01014 0.0537272 9.96384 
1.66523 11.5686 4.06981 8.33611 
-5.35141 15.416 8.03513 11.9564 
0.02453 15.4366 6.19457 11.3947 
-3.65607 11.5321 5.85597 7.54064 
0.000511485 8.06596 1.85717 5.7956 
3.71646 11.9182 2.23965 10.1479 
0.050283 11.9597 6.21069 7.99739 
-3.73306 8.01842 5.89849 4.24624 
-0.00945759 11.5243 1.85626 8.49728 
3.73759 15.4272 2.23465 13.026 
-5.34634 13.6137 5.90161 10.0306 
1.67859 9.7032 6.15595 6.55033 
5.41845 9.83715 2.15036 9.88695 
-1.64502 13.7479 1.89672 10.2946 
1.67563 13.5982 2.04959 10.6991 
2.0606 9.71989 2.03054 7.72597 
-1.60579 9.88767 6.05162 5.69305 
-2.12712 13.719 6.09319 9.52048 
-9.26828 12.0038 13.7676 13.4061 
-9.2621 8.12703 14.3671 12.0074 
-5.5034 11.4323 10.2923 9.2726 
-5.51784 15.3802 9.77488 12.4213 
-1.77228 11.9708 9.73554 8.72234 
-9.21301 8.08041 10.3173 9.47482 
-12.9284 11.4574 14.305 15.7479 
-5.57202 15.3999 13.7995 14.2705 
-9.087 7.84354 12.0659 10.2545 
-9.39587 11.7939 16.0453 14.8347 
-5.72415 15.607 12.0726 13.5901 
-5.35923 11.6665 8.03617 8.54561 
-9.07472 11.9087 12.0374 12.2761 
-2.03868 8.01014 8.06196 4.44842 
-5.73868 11.5686 12.078 10.4457 
-12.7553 15.416 16.0434 18.708 
-7.37938 15.4366 14.2028 15.0927 
-11.06 11.5321 13.8642 14.279 
-7.4034 8.06596 9.8654 7.90089 
-3.68745 11.9182 10.2479 9.10587 
-7.35363 11.9597 14.2189 12.7194 
-11.137 8.01842 13.9067 12.9182 
-7.41337 11.5243 9.86449 10.0584 
-3.66632 15.4272 10.2429 12.2156 
-12.7503 13.6137 13.9098 16.5348 
-5.72532 9.7032 14.1642 10.7585 
-1.98546 9.83715 10.1586 7.14526 
-9.04894 13.7479 9.90495 12.6417 
-5.72828 13.5982 10.0578 11.0265 
-5.34331 9.71989 10.0388 7.79724 
-9.0097 9.88767 14.0598 12.3374 
-9.53103 13.719 14.1014 14.7928 
-16.6722 12.0038 21.7759 23.164 
-16.666 8.12703 22.3753 22.5951 
-12.9073 11.4323 18.3006 18.2049 
-12.9218 15.3802 17.7831 19.7902 
-9.17619 11.9708 17.7438 16.0421 
-16.6169 8.08041 18.3255 19.7621 
-20.3323 11.4574 22.3132 25.8389 
-12.9759 15.3999 21.8077 22.5005 
-16.4909 7.84354 20.0741 20.7862 
-16.7998 11.7939 24.0535 24.805 
-13.1281 15.607 20.0808 21.4921 
-12.7631 11.6665 16.0444 16.739 
-16.4786 11.9087 20.0456 21.8397 
-9.44259 8.01014 16.0702 13.3491 
-13.1426 11.5686 20.0863 19.6631 
-20.1592 15.416 24.0516 28.1944 
-14.7833 15.4366 22.211 23.741 
-18.4639 11.5321 21.8724 24.2655 
-14.8073 8.06596 17.8736 18.1427 
-11.0914 11.9182 18.2561 17.3422 
-14.7575 11.9597 22.2271 22.3049 
-18.5409 8.01842 21.9149 23.5293 
-14.8173 11.5243 17.8727 19.1844 
-11.0702 15.4272 18.2511 19.1484 
-20.1542 13.6137 21.9181 26.1551 
-13.1292 9.7032 22.1724 20.6514 
-9.38938 9.83715 18.1668 15.5646 
-16.4529 13.7479 17.9132 21.2497 
-13.1322 13.5982 18.066 19.1466 
-12.7472 9.71989 18.047 17.3148 
-16.4136 9.88767 22.0681 22.5812 
-16.9349 13.719 22.1097 24.185 
12.9435 19.7995 -10.2571 26.8122 
12.9496 15.9228 -9.65761 24.3798 
16.7083 19.2281 -13.7324 30.8298 
16.6939 23.1759 -14.2498 33.2349 
20.4395 19.7666 -14.2891 33.7857 
12.9987 15.8762 -13.7074 27.1296 
9.28331 19.2532 -9.71969 24.2947 
16.6397 23.1957 -10.2252 30.9587 
13.1247 15.6393 -11.9588 25.8705 
12.8159 19.5897 -7.97943 25.3152 
16.4876 23.4028 -11.9521 31.9207 
16.8525 19.4623 -15.9885 32.4959 
13.137 19.7044 -11.9873 27.9308 
20.1731 15.8059 -15.9627 33.0456 
16.4731 19.3643 -11.9467 29.656 
9.45642 23.2117 -7.98133 26.0405 
14.8324 23.2324 -9.82189 29.7235 
11.1518 19.3278 -10.1605 25.5239 
14.8083 15.8617 -14.1593 28.47 
18.5243 19.7139 -13.7768 32.2148 
14.8581 19.7555 -9.80577 27.634 
11.0748 15.8142 -10.118 23.5418 
14.7984 19.3201 -14.1602 30.0468 
18.5454 23.223 -13.7818 34.0586 
9.46149 21.4095 -10.1149 26.003 
16.4864 17.4989 -9.86051 27.5206 
20.2263 17.6329 -13.8661 32.4559 
13.1628 21.5437 -14.1197 30.3566 
16.4835 21.394 -13.9669 31.9551 
16.8684 17.5156 -13.9859 30.2967 
13.202 17.6834 -9.96484 25.6093 
12.6807 21.5148 -9.92327 27.5142 
5.53955 19.7995 -2.24883 19.0275 
5.54573 15.9228 -1.64938 15.7174 
9.30443 19.2281 -5.72414 21.9594 
9.28999 23.1759 -6.24158 25.0644 
13.0356 19.7666 -6.28092 24.6788 
5.59482 15.8762 -5.69919 17.9746 
1.8794 19.2532 -1.71146 17.2101 
9.23581 23.1957 -2.21701 23.3959 
5.72082 15.6393 -3.95055 16.8075 
5.41196 19.5897 0.0287976 17.9549 
9.08368 23.4028 -3.94391 24.134 
9.4486 19.4623 -7.98029 23.4405 
5.7331 19.7044 -3.9791 19.8166 
12.7692 15.8059 -7.9545 23.1673 
9.06915 19.3643 -3.93842 21.0548 
2.05251 23.2117 0.0268996 20.2323 
7.42844 23.2324 -1.81366 22.4863 
3.74784 19.3278 -2.15226 17.9638 
7.40443 15.8617 -6.15106 19.0677 
11.1204 19.7139 -5.76858 23.2794 
7.4542 19.7555 -1.79754 19.6384 
3.67086 15.8142 -2.10974 15.0753 
7.39446 19.3201 -6.15197 21.3537 
11.1415 23.223 -5.77358 25.763 
2.05758 21.4095 -2.10662 19.317 
9.08251 17.4989 -1.85228 18.8261 
12.8224 17.6329 -5.85787 23.041 
5.75889 21.5437 -6.11151 22.3508 
9.07955 21.394 -5.95864 23.504 
9.46452 17.5156 -5.97769 21.0522 
5.79813 17.6834 -1.95661 17.3158 
5.2768 21.5148 -1.91504 20.2341 
-1.86436 19.7995 5.7594 15.5915 
-1.85819 15.9228 6.35886 11.7301 
1.90051 19.2281 2.28409 15.8699 
1.88608 23.1759 1.76665 19.7431 
5.63164 19.7666 1.72731 17.7346 
-1.8091 15.8762 2.30904 12.1677 
-5.52452 19.2532 6.29677 15.4933 
1.83189 23.1957 5.79122 19.3441 
-1.68309 15.6393 4.05768 11.5587 
-1.99196 19.5897 8.03703 15.5499 
1.67977 23.4028 4.06432 19.5927 
2.04469 19.4623 0.0279407 16.7578 
-1.67081 19.7044 4.02913 15.5939 
5.36524 15.8059 0.0537272 14.8099 
1.66523 19.3643 4.06981 15.6533 
-5.35141 23.2117 8.03513 19.4545 
0.02453 23.2324 6.19457 19.1229 
-3.65607 19.3278 5.85597 15.2259 
0.000511485 15.8617 1.85717 12.4304 
3.71646 19.7139 2.23965 16.8513 
0.050283 19.7555 6.21069 15.6714 
-3.73306 15.8142 5.89849 11.7565 
-0.00945759 19.3201 1.85626 15.7178 
3.73759 23.223 2.23465 20.1339 
-5.34634 21.4095 5.90161 17.5509 
1.67859 17.4989 6.15595 13.7608 
5.41845 17.6329 2.15036 15.6937 
-1.64502 21.5437 1.89672 17.7621 
1.67563 21.394 2.04959 17.9347 
2.0606 17.5156 2.03054 14.3667 
-1.60579 17.6834 6.05162 13.4811 
-2.12712 21.5148 6.09319 17.312 
-9.26828 19.7995 13.7676 19.0275 
-9.2621 15.9228 14.3671 16.3112 
-5.5034 19.2281 10.2923 16.1057 
-5.51784 23.1759 9.77488 19.7295 
-1.77228 19.7666 9.73554 16.0588 
-9.21301 15.8762 10.3173 14.5232 
-12.9284 19.2532 14.305 20.5377 
-5.57202 23.1957 13.7995 20.9504 
-9.087 15.6393 12.0659 14.9202 
-9.39587 19.5897 16.0453 19.9779 
-5.72415 23.4028 12.0726 20.5716 
-5.35923 19.4623 8.03617 15.8143 
-9.07472 19.7044 12.0374 18.2083 
-2.03868 15.8059 8.06196 11.8255 
-5.73868 19.3643 12.078 16.8716 
-12.7553 23.2117 16.0434 24.1974 
-7.37938 23.2324 14.2028 21.5321 
-11.06 19.3278 13.8642 19.4642 
-7.4034 15.8617 9.8654 13.5406 
-3.68745 19.7139 10.2479 16.2451 
-7.35363 19.7555 14.2189 18.5316 
-11.137 15.8142 13.9067 16.9429 
-7.41337 19.3201 9.86449 16.6138 
-3.66632 23.223 10.2429 19.6193 
-12.7503 21.4095 13.9098 21.9277 
-5.72532 17.4989 14.1642 16.1925 
-1.98546 17.6329 10.1586 14.1278 
-9.04894 21.5437 9.90495 19.2179 
-5.72828 21.394 10.0578 18.1319 
-5.34331 17.5156 10.0388 14.4052 
-9.0097 17.6834 14.0598 17.3649 
-9.53103 21.5148 14.1014 20.6855 
-16.6722 19.7995 21.7759 26.8122 
-16.666 15.9228 22.3753 25.1478 
-12.9073 19.2281 18.3006 22.4684 
-12.9218 23.1759 17.7831 25.0323 
-9.17619 19.7666 17.7438 20.9561 
-16.6169 15.8762 18.3255 22.6206 
-20.3323 19.2532 22.3132 29.0078 
-12.9759 23.1957 21.8077 27.2313 
-16.4909 15.6393 20.0741 23.4419 
-16.7998 19.5897 24.0535 28.184 
-13.1281 23.4028 20.0808 26.4653 
-12.7631 19.4623 16.0444 21.3836 
-16.4786 19.7044 20.0456 25.6478 
-9.44259 15.8059 16.0702 17.27 
-13.1426 19.3643 20.0863 23.7102 
-20.1592 23.2117 24.0516 32.1006 
-14.7833 23.2324 22.211 28.2751 
-18.4639 19.3278 21.8724 27.6366 
-14.8073 15.8617 17.8736 21.2152 
-11.0914 19.7139 18.2561 21.9486 
-14.7575 19.7555 22.2271 26.0604 
-18.5409 15.8142 21.9149 25.9579 
-14.8173 19.3201 17.8727 23.2999 
-11.0702 23.223 18.2511 24.543 
-20.1542 21.4095 21.9181 29.8582 
-13.1292 17.4989 22.1724 23.936 
-9.38938 17.6329 18.1668 19.7686 
-16.4529 21.5437 17.9132 25.7112 
-13.1322 21.394 18.066 23.9536 
-12.7472 17.5156 18.047 21.1309 
-16.4136 17.6834 22.0681 25.6757 
-16.9349 21.5148 22.1097 28.1776 
20.3803 -11.3835 -10.2571 31.5348 
20.3864 -15.2602 -9.65761 33.3436 
24.1451 -11.9549 -13.7324 36.2996 
24.1307 -8.00709 -14.2498 35.0046 
27.8763 -11.4165 -14.2891 39.1225 
20.4355 -15.3069 -13.7074 35.4552 
16.7201 -11.9298 -9.71969 29.076 
24.0765 -7.98733 -10.2252 32.8202 
20.5615 -15.5437 -11.9588 34.7417 
20.2527 -11.5934 -7.97943 30.4566 
23.9244 -7.78026 -11.9521 33.5034 
24.2893 -11.7207 -15.9885 37.5594 
20.5738 -11.4786 -11.9873 32.6265 
27.6099 -15.3771 -15.9627 41.523 
23.9099 -11.8187 -11.9467 35.1379 
16.8932 -7.97131 -7.98133 26.2486 
22.2692 -7.95063 -9.82189 31.1935 
18.5886 -11.8552 -10.1605 30.4925 
22.2451 -15.3213 -14.1593 36.8703 
25.9611 -11.4691 -13.7768 37.4392 
22.2949 -11.4276 -9.80577 32.7172 
18.5116 -15.3688 -10.118 32.4118 
22.2352 -11.8629 -14.1602 35.1547 
25.9822 -7.96002 -13.7818 36.1297 
16.8983 -9.77352 -10.1149 28.2757 
23.9232 -13.6841 -9.86051 35.0586 
27.6631 -13.5501 -13.8661 39.6533 
20.5996 -9.63935 -14.1197 33.0388 
23.9203 -9.78902 -13.9669 35.3538 
24.3052 -13.6674 -13.9859 37.3397 
20.6388 -13.4996 -9.96484 32.6681 
20.1175 -9.66826 -9.92327 30.3595 
12.9764 -11.3835 -2.24883 22.9668 
12.9825 -15.2602 -1.64938 25.5799 
16.7412 -11.9549 -5.72414 27.1897 
16.7268 -8.00709 -6.24158 25.2757 
20.4724 -11.4165 -6.28092 29.7997 
13.0316 -15.3069 -5.69919 27.0928 
9.31621 -11.9298 -1.71146 21.0059 
16.6726 -7.98733 -2.21701 23.579 
13.1576 -15.5437 -3.95055 26.6472 
12.8488 -11.5934 0.0287976 22.3383 
16.5205 -7.78026 -3.94391 23.9974 
16.8854 -11.7207 -7.98029 28.179 
13.1699 -11.4786 -3.9791 23.8104 
20.206 -15.3771 -7.9545 32.5384 
16.506 -11.8187 -3.93842 26.2368 
9.48932 -7.97131 0.0268996 17.6097 
14.8653 -7.95063 -1.81366 22.0242 
11.1847 -11.8552 -2.15226 22.1562 
14.8412 -15.3213 -6.15106 28.3254 
18.5572 -11.4691 -5.76858 28.2082 
14.891 -11.4276 -1.79754 24.1313 
11.1077 -15.3688 -2.10974 24.7679 
14.8313 -11.8629 -6.15197 26.0557 
18.5783 -7.96002 -5.77358 26.4381 
9.49438 -9.77352 -2.10662 19.6565 
16.5193 -13.6841 -1.85228 26.7586 
20.2592 -13.5501 -5.85787 30.6555 
13.1957 -9.63935 -6.11151 23.6532 
16.5164 -9.78902 -5.95864 25.9052 
16.9013 -13.6674 -5.97769 28.4506 
13.2349 -13.4996 -1.95661 24.517 
12.7136 -9.66826 -1.91504 21.5398 
5.57245 -11.3835 5.7594 17.2743 
5.57862 -15.2602 6.35886 20.8511 
9.33732 -11.9549 2.28409 19.9699 
9.32289 -8.00709 1.76665 17.0383 
13.0684 -11.4165 1.72731 21.9857 
5.62771 -15.3069 2.30904 21.1865 
1.91229 -11.9298 6.29677 16.5826 
9.2687 -7.98733 5.79122 16.5128 
5.75372 -15.5437 4.05768 21.2382 
5.44485 -11.5934 8.03703 17.5583 
9.11657 -7.78026 4.06432 16.3454 
9.4815 -11.7207 0.0279407 20.379 
5.766 -11.4786 4.02913 17.5296 
12.802 -15.3771 0.0537272 25.1244 
9.10204 -11.8187 4.06981 19.4929 
2.0854 -7.97131 8.03513 13.0044 
7.46134 -7.95063 6.19457 15.3294 
3.78074 -11.8552 5.85597 17.0265 
7.43732 -15.3213 1.85717 21.9805 
11.1533 -11.4691 2.23965 20.6789 
7.48709 -11.4276 6.21069 18.2243 
3.70375 -15.3688 5.89849 20.3538 
7.42735 -11.8629 1.85626 18.9696 
11.1744 -7.96002 2.23465 18.1795 
2.09047 -9.77352 5.90161 14.5308 
9.1154 -13.6841 6.15595 20.9962 
12.8553 -13.5501 2.15036 23.3462 
5.79178 -9.63935 1.89672 16.2876 
9.11244 -9.78902 2.04959 18.1706 
9.49741 -13.6674 2.03054 21.5064 
5.83102 -13.4996 6.05162 19.3097 
5.30969 -9.66826 6.09319 15.6246 
-1.83147 -11.3835 13.7676 17.5279 
-1.82529 -15.2602 14.3671 21.2863 
1.93341 -11.9549 10.2923 17.2108 
1.91897 -8.00709 9.77488 13.4032 
5.66453 -11.4165 9.73554 17.7938 
-1.7762 -15.3069 10.3173 20.0403 
-5.49162 -11.9298 14.305 18.6176 
1.86479 -7.98733 13.7995 15.0757 
-1.6502 -15.5437 12.0659 20.7352 
-1.95906 -11.5934 16.0453 18.8545 
1.71266 -7.78026 12.0726 14.0132 
2.07758 -11.7207 8.03617 16.5664 
-1.63792 -11.4786 12.0374 16.8977 
5.39813 -15.3771 8.06196 21.0148 
1.69813 -11.8187 12.078 17.5918 
-5.31851 -7.97131 16.0434 16.3103 
0.0574246 -7.95063 14.2028 14.927 
-3.62318 -11.8552 13.8642 18.0778 
0.033406 -15.3213 9.8654 20.0463 
3.74936 -11.4691 10.2479 17.2462 
0.0831776 -11.4276 14.2189 17.8837 
-3.70016 -15.3688 13.9067 21.2838 
0.023437 -11.8629 9.86449 16.694 
3.77049 -7.96002 10.2429 14.1391 
-5.31344 -9.77352 13.9098 16.5472 
1.71149 -13.6841 14.1642 20.0886 
5.45134 -13.5501 10.1586 19.7034 
-1.61213 -9.63935 9.90495 14.4568 
1.70853 -9.78902 10.0578 15.0718 
2.0935 -13.6674 10.0388 18.8018 
-1.57289 -13.4996 14.0598 19.5587 
-2.09422 -9.66826 14.1014 16.1924 
-9.23538 -11.3835 21.7759 23.5362 
-9.22921 -15.2602 22.3753 26.6335 
-5.47051 -11.9549 18.3006 20.7732 
-5.48494 -8.00709 17.7831 17.5182 
-1.73938 -11.4165 17.7438 19.6917 
-9.18012 -15.3069 18.3255 24.3363 
-12.8955 -11.9298 22.3132 25.6153 
-5.53913 -7.98733 21.8077 20.4885 
-9.05411 -15.5437 20.0741 25.431 
-9.36298 -11.5934 24.0535 25.3098 
-5.69125 -7.78026 20.0808 19.0648 
-5.32633 -11.7207 16.0444 19.2741 
-9.04183 -11.4786 20.0456 22.3982 
-2.00578 -15.3771 16.0702 22.1339 
-5.70579 -11.8187 20.0863 21.8374 
-12.7224 -7.97131 24.0516 24.512 
-7.34649 -7.95063 22.211 21.1788 
-11.0271 -11.8552 21.8724 24.5278 
-7.37051 -15.3213 17.8736 23.6319 
-3.65456 -11.4691 18.2561 20.1282 
-7.32074 -11.4276 22.2271 23.3544 
-11.1041 -15.3688 21.9149 27.0116 
-7.38048 -11.8629 17.8727 20.8671 
-3.63343 -7.96002 18.2511 17.5281 
-12.7174 -9.77352 21.9181 23.9661 
-5.69243 -13.6841 22.1724 24.5798 
-1.95257 -13.5501 18.1668 21.6634 
-9.01604 -9.63935 17.9132 19.7639 
-5.69539 -9.78902 18.066 19.0275 
-5.31042 -13.6674 18.047 21.9634 
-8.97681 -13.4996 22.0681 25.1022 
-9.49814 -9.66826 22.1097 22.763 
20.3803 -3.58775 -10.2571 28.4978 
20.3864 -7.46447 -9.65761 29.4793 
24.1451 -4.15916 -13.7324 33.5624 
24.1307 -0.211335 -14.2498 33.1005 
27.8763 -3.62071 -14.2891 36.7116 
20.4355 -7.5111 -13.7074 31.8368 
16.7201 -4.13408 -9.71969 25.5847 
24.0765 -0.191581 -10.2252 30.7863 
20.5615 -7.74797 -11.9588 30.9806 
20.2527 -3.79761 -7.97943 27.2398 
23.9244 0.0154902 -11.9521 31.5648 
24.2893 -3.92498 -15.9885 34.9733 
20.5738 -3.68282 -11.9873 29.6763 
27.6099 -7.58136 -15.9627 38.4652 
23.9099 -4.02293 -11.9467 32.3352 
16.8932 -0.175553 -7.98133 23.6616 
22.2692 -0.154878 -9.82189 29.0558 
18.5886 -4.05945 -10.1605 27.2051 
22.2451 -7.52555 -14.1593 33.4021 
25.9611 -3.67334 -13.7768 34.9004 
22.2949 -3.63181 -9.80577 29.7894 
18.5116 -7.57309 -10.118 28.3913 
22.2352 -4.06718 -14.1602 32.3428 
25.9822 -0.164264 -13.7818 34.2988 
16.8983 -1.97777 -10.1149 25.3435 
23.9232 -5.88831 -9.86051 31.7949 
27.6631 -5.75436 -13.8661 36.8277 
20.5996 -1.84359 -14.1197 30.6012 
23.9203 -1.99327 -13.9669 33.0519 
24.3052 -5.87161 -13.9859 34.2976 
20.6388 -5.70384 -9.96484 29.1872 
20.1175 -1.8725 -9.92327 27.6789 
12.9764 -3.58775 -2.24883 18.5783 
12.9825 -7.46447 -1.64938 20.2871 
16.7412 -4.15916 -5.72414 23.4105 
16.7268 -0.211335 -6.24158 22.5651 
20.4724 -3.62071 -6.28092 26.5554 
13.0316 -7.5111 -5.69919 22.1479 
9.31621 -4.13408 -1.71146 15.8243 
16.6726 -0.191581 -2.21701 20.6543 
13.1576 -7.74797 -3.95055 21.5148 
12.8488 -3.79761 0.0287976 17.7033 
16.5205 0.0154902 -3.94391 21.2069 
16.8854 -3.92498 -7.98029 24.6268 
13.1699 -3.68282 -3.9791 19.5738 
20.206 -7.58136 -7.9545 28.5335 
16.506 -4.02293 -3.93842 22.3442 
9.48932 -0.175553 0.0268996 13.453 
14.8653 -0.154878 -1.81366 18.875 
11.1847 -4.05945 -2.15226 17.3557 
14.8412 -7.52555 -6.15106 23.635 
18.5572 -3.67334 -5.76858 24.7396 
14.891 -3.63181 -1.79754 19.9828 
11.1077 -7.57309 -2.10974 19.2091 
14.8313 -4.06718 -6.15197 22.1157 
18.5783 -0.164264 -5.77358 23.8753 
9.49438 -1.97777 -2.10662 15.138 
16.5193 -5.88831 -1.85228 22.3122 
20.2592 -5.75436 -5.85787 26.9009 
13.1957 -1.84359 -6.11151 20.1084 
16.5164 -1.99327 -5.95864 22.6632 
16.9013 -5.87161 -5.97769 24.321 
13.2349 -5.70384 -1.95661 19.641 
12.7136 -1.8725 -1.91504 17.5609 
5.57245 -3.58775 5.7594 10.774 
5.57862 -7.46447 6.35886 13.8566 
9.33732 -4.15916 2.28409 14.4071 
9.32289 -0.211335 1.76665 12.6739 
13.0684 -3.62071 1.72731 17.336 
5.62771 -7.5111 2.30904 14.3309 
1.91229 -4.13408 6.29677 9.17291 
9.2687 -0.191581 5.79122 11.9709 
5.75372 -7.74797 4.05768 14.2785 
5.44485 -3.79761 8.03703 11.0771 
9.11657 0.0154902 4.06432 11.8757 
9.4815 -3.92498 0.0279407 15.0905 
5.766 -3.68282 4.02913 11.1122 
12.802 -7.58136 0.0537272 19.6634 
9.10204 -4.02293 4.06981 13.8154 
2.0854 -0.175553 8.03513 6.32417 
7.46134 -0.154878 6.19457 10.305 
3.78074 -4.05945 5.85597 10.0114 
7.43732 -7.52555 1.85717 15.4734 
11.1533 -3.67334 2.23965 15.6193 
7.48709 -3.63181 6.21069 12.2113 
3.70375 -7.57309 5.89849 13.0314 
7.42735 -4.06718 1.85626 13.0403 
11.1744 -0.164264 2.23465 14.1968 
2.09047 -1.97777 5.90161 7.34335 
9.1154 -5.88831 6.15595 14.9214 
12.8553 -5.75436 2.15036 18.1367 
5.79178 -1.84359 1.89672 10.4957 
9.11244 -1.99327 2.04959 13.1419 
9.49741 -5.87161 2.03054 15.6395 
5.83102 -5.70384 6.05162 12.5519 
5.30969 -1.8725 6.09319 9.41016 
-1.83147 -3.58775 13.7676 11.1762 
-1.82529 -7.46447 14.3671 14.5031 
1.93341 -4.15916 10.2923 10.246 
1.91897 -0.211335 9.77488 7.06882 
5.66453 -3.62071 9.73554 11.5664 
-1.7762 -7.5111 10.3173 12.5746 
-5.49162 -4.13408 14.305 12.481 
1.86479 -0.191581 13.7995 9.89472 
-1.6502 -7.74797 12.0659 13.519 
-1.95906 -3.79761 16.0453 13.0345 
1.71266 0.0154902 12.0726 8.38023 
2.07758 -3.92498 8.03617 9.3203 
-1.63792 -3.68282 12.0374 10.0861 
5.39813 -7.58136 8.06196 14.0369 
1.69813 -4.02293 12.078 10.9711 
-5.31851 -0.175553 16.0434 11.7007 
0.0574246 -0.154878 14.2028 9.69634 
-3.62318 -4.05945 13.8642 11.7103 
0.033406 -7.52555 9.8654 12.5753 
3.74936 -3.67334 10.2479 10.6666 
0.0831776 -3.63181 14.2189 11.697 
-3.70016 -7.57309 13.9067 14.441 
0.023437 -4.06718 9.86449 9.42837 
3.77049 -0.164264 10.2429 8.42436 
-5.31344 -1.97777 13.9098 10.7977 
1.71149 -5.88831 14.1642 13.6148 
5.45134 -5.75436 10.1586 13.1195 
-1.61213 -1.84359 9.90495 7.33969 
1.70853 -1.99327 10.0578 8.34852 
2.0935 -5.87161 10.0388 11.6437 
-1.57289 -5.70384 14.0598 12.9316 
-2.09422 -1.8725 14.1014 10.3254 
-9.23538 -3.58775 21.7759 19.2778 
-9.22921 -7.46447 22.3753 21.6004 
-5.47051 -4.15916 18.3006 15.5014 
-5.48494 -0.211335 17.7831 13.312 
-1.73938 -3.62071 17.7438 14.3154 
-9.18012 -7.5111 18.3255 18.6752 
-12.8955 -4.13408 22.3132 21.571 
-5.53913 -0.191581 21.8077 17.0414 
-9.05411 -7.74797 20.0741 19.9887 
-9.36298 -3.79761 24.0535 21.3306 
-5.69125 0.0154902 20.0808 15.4053 
-5.32633 -3.92498 16.0444 13.5614 
-9.04183 -3.68282 20.0456 17.8291 
-2.00578 -7.58136 16.0702 15.6627 
-5.70579 -4.02293 20.0863 16.9636 
-12.7224 -0.175553 24.0516 21.7191 
-7.34649 -0.154878 22.211 17.8814 
-11.0271 -4.05945 21.8724 20.2962 
-7.37051 -7.52555 17.8736 17.7412 
-3.65456 -3.67334 18.2561 14.8825 
-7.32074 -3.63181 22.2271 19.0374 
-11.1041 -7.57309 21.9149 22.0265 
-7.38048 -4.06718 17.8727 15.6729 
-3.63343 -0.164264 18.2511 13.3525 
-12.7174 -1.97777 21.9181 20.4243 
-5.69243 -5.88831 22.1724 19.6463 
-1.95257 -5.75436 18.1668 15.9123 
-9.01604 -1.84359 17.9132 15.3454 
-5.69539 -1.99327 18.066 14.3034 
-5.31042 -5.87161 18.047 16.2622 
-8.97681 -5.70384 22.0681 20.3668 
-9.49814 -1.8725 22.1097 19.0415 
20.3803 4.20801 -10.2571 27.4108 
20.3864 0.331281 -9.65761 27.3461 
24.1451 3.63659 -13.7324 32.5077 
24.1307 7.58442 -14.2498 32.9775 
27.8763 4.17505 -14.2891 35.8671 
20.4355 0.284654 -13.7074 29.8603 
16.7201 3.66167 -9.71969 24.1926 
24.0765 7.60417 -10.2252 30.659 
20.5615 0.047788 -11.9588 28.8819 
20.2527 3.99815 -7.97943 26.0377 
23.9244 7.81124 -11.9521 31.4919 
24.2893 3.87078 -15.9885 34.0162 
20.5738 4.11293 -11.9873 28.6082 
27.6099 0.214391 -15.9627 36.8311 
23.9099 3.77283 -11.9467 31.2731 
16.8932 7.6202 -7.98133 23.501 
22.2692 7.64088 -9.82189 28.9308 
18.5886 3.7363 -10.1605 25.9227 
22.2451 0.270209 -14.1593 31.5203 
25.9611 4.12242 -13.7768 33.9989 
22.2949 4.16395 -9.80577 28.7393 
18.5116 0.222662 -10.118 26.1372 
22.2352 3.72858 -14.1602 31.2699 
25.9822 7.63149 -13.7818 34.1908 
16.8983 5.81799 -10.1149 24.6297 
23.9232 1.90744 -9.86051 30.237 
27.6631 2.0414 -13.8661 35.5208 
20.5996 5.95216 -14.1197 30.0475 
23.9203 5.80249 -13.9669 32.5041 
24.3052 1.92414 -13.9859 32.8625 
20.6388 2.09191 -9.96484 27.5341 
20.1175 5.92325 -9.92327 27.0572 
12.9764 4.20801 -2.24883 16.8635 
12.9825 0.331281 -1.64938 17.0396 
16.7412 3.63659 -5.72414 21.8716 
16.7268 7.58442 -6.24158 22.3843 
20.4724 4.17505 -6.28092 25.3752 
13.0316 0.284654 -5.69919 19.1985 
9.31621 3.66167 -1.71146 13.458 
16.6726 7.60417 -2.21701 20.464 
13.1576 0.047788 -3.95055 18.3644 
12.8488 3.99815 0.0287976 15.7911 
16.5205 7.81124 -3.94391 21.0983 
16.8854 3.87078 -7.98029 23.2475 
13.1699 4.11293 -3.9791 17.913 
20.206 0.214391 -7.9545 26.2891 
16.506 3.77283 -3.93842 20.7775 
9.48932 7.6202 0.0268996 13.1685 
14.8653 7.64088 -1.81366 18.682 
11.1847 3.7363 -2.15226 15.2674 
14.8412 0.270209 -6.15106 20.8912 
18.5572 4.12242 -5.76858 23.4508 
14.891 4.16395 -1.79754 18.3807 
11.1077 0.222662 -2.10974 15.6869 
14.8313 3.72858 -6.15197 20.5147 
18.5783 7.63149 -5.77358 23.7199 
9.49438 5.81799 -2.10662 13.91 
16.5193 1.90744 -1.85228 20.0297 
20.2592 2.0414 -5.85787 25.082 
13.1957 5.95216 -6.11151 19.2553 
16.5164 5.80249 -5.95864 21.8565 
16.9013 1.92414 -5.97769 22.2514 
13.2349 2.09191 -1.95661 17.0881 
12.7136 5.92325 -1.91504 16.5637 
5.57245 4.20801 5.7594 7.43681 
5.57862 0.331281 6.35886 8.41346 
9.33732 3.63659 2.28409 11.7423 
9.32289 7.58442 1.76665 12.349 
13.0684 4.17505 1.72731 15.4676 
5.62771 0.284654 2.30904 9.13394 
1.91229 3.66167 6.29677 3.85362 
9.2687 7.60417 5.79122 11.6396 
5.75372 0.047788 4.05768 8.84525 
5.44485 3.99815 8.03703 7.65874 
9.11657 7.81124 4.06432 11.6807 
9.4815 3.87078 0.0279407 12.7158 
5.766 4.11293 4.02913 7.82466 
12.802 0.214391 0.0537272 16.236 
9.10204 3.77283 4.06981 11.1043 
2.0854 7.6202 8.03513 5.69409 
7.46134 7.64088 6.19457 9.94699 
3.78074 3.7363 5.85597 5.6656 
7.43732 0.270209 1.85717 10.8284 
11.1533 4.12242 2.23965 13.4854 
7.48709 4.16395 6.21069 9.36244 
3.70375 0.222662 5.89849 6.84881 
7.42735 3.72858 1.85626 10.0896 
11.1744 7.63149 2.23465 13.9339 
2.09047 5.81799 5.90161 4.27235 
9.1154 1.90744 6.15595 11.2252 
12.8553 2.0414 2.15036 15.3097 
5.79178 5.95216 1.89672 8.75094 
9.11244 5.80249 2.04959 11.696 
9.49741 1.92414 2.03054 12.1742 
5.83102 2.09191 6.05162 7.98637 
5.30969 5.92325 6.09319 7.3838 
-1.83147 4.20801 13.7676 8.0083 
-1.82529 0.331281 14.3671 9.44049 
1.93341 3.63659 10.2923 5.94112 
1.91897 7.58442 9.77488 6.46822 
5.66453 4.17505 9.73554 8.5144 
-1.7762 0.284654 10.3173 6.01454 
-5.49162 3.66167 14.305 9.29961 
1.86479 7.60417 13.7995 9.49121 
-1.6502 0.047788 12.0659 7.55814 
-1.95906 3.99815 16.0453 10.2884 
1.71266 7.81124 12.0726 8.1015 
2.07758 3.87078 8.03617 4.56468 
-1.63792 4.11293 12.0374 6.28277 
5.39813 0.214391 8.06196 8.60201 
1.69813 3.77283 12.078 7.26677 
-5.31851 7.6202 16.0434 11.3725 
0.0574246 7.64088 14.2028 9.31498 
-3.62318 3.7363 13.8642 8.30685 
0.033406 0.270209 9.8654 5.99725 
3.74936 4.12242 10.2479 7.18802 
0.0831776 4.16395 14.2189 8.68092 
-3.70016 0.222662 13.9067 9.25375 
0.023437 3.72858 9.86449 4.54372 
3.77049 7.63149 10.2429 7.97329 
-5.31344 5.81799 13.9098 8.99544 
1.71149 1.90744 14.1642 9.41911 
5.45134 2.0414 10.1586 8.80719 
-1.61213 5.95216 9.90495 4.50458 
1.70853 5.80249 10.0578 5.81243 
2.0935 1.92414 10.0388 6.26049 
-1.57289 2.09191 14.0598 8.5709 
-2.09422 5.92325 14.1014 8.51964 
-9.23538 4.20801 21.7759 17.6312 
-9.22921 0.331281 22.3753 18.5838 
-5.47051 3.63659 18.3006 13.0618 
-5.48494 7.58442 17.7831 13.003 
-1.73938 4.17505 17.7438 11.9851 
-9.18012 0.284654 18.3255 15.0605 
-12.8955 3.66167 22.3132 19.9001 
-5.53913 7.60417 21.8077 16.8103 
-9.05411 0.047788 20.0741 16.5503 
-9.36298 3.99815 24.0535 19.7724 
-5.69125 7.81124 20.0808 15.2555 
-5.32633 3.87078 16.0444 10.8573 
-9.04183 4.11293 20.0456 15.9881 
-2.00578 0.214391 16.0702 11.0581 
-5.70579 3.77283 20.0863 14.8393 
-12.7224 7.6202 24.0516 21.544 
-7.34649 7.64088 22.211 17.6775 
-11.0271 3.7363 21.8724 18.5421 
-7.37051 0.270209 17.8736 13.8773 
-3.65456 4.12242 18.2561 12.6246 
-7.32074 4.16395 22.2271 17.3482 
-11.1041 0.222662 21.9149 19.033 
-7.38048 3.72858 17.8727 13.3188 
-3.63343 7.63149 18.2511 13.0726 
-12.7174 5.81799 21.9181 19.5316 
-5.69243 1.90744 22.1724 17.0098 
-1.95257 2.0414 18.1668 12.5955 
-9.01604 5.95216 17.9132 14.2093 
-5.69539 5.80249 18.066 12.9874 
-5.31042 1.92414 18.047 12.9644 
-8.97681 2.09191 22.0681 17.9175 
-9.49814 5.92325 22.1097 18.1259 
20.3803 12.0038 -10.2571 28.4978 
20.3864 8.12703 -9.65761 27.3522 
24.1451 11.4323 -13.7324 33.2959 
24.1307 15.3802 -14.2498 34.6544 
27.8763 11.9708 -14.2891 36.6976 
20.4355 8.08041 -13.7074 29.8536 
16.7201 11.4574 -9.71969 25.2495 
24.0765 15.3999 -10.2252 32.4607 
20.5615 7.84354 -11.9588 28.811 
20.2527 11.7939 -7.97943 27.1195 
23.9244 15.607 -11.9521 33.2971 
24.2893 11.6665 -15.9885 34.8226 
20.5738 11.9087 -11.9873 29.6263 
27.6099 8.01014 -15.9627 36.8108 
23.9099 11.5686 -11.9467 32.1247 
16.8932 15.416 -7.98133 25.8123 
22.2692 15.4366 -9.82189 30.8429 
18.5886 11.5321 -10.1605 26.9334 
22.2451 8.06596 -14.1593 31.5104 
25.9611 11.9182 -13.7768 34.8621 
22.2949 11.9597 -9.80577 29.7663 
18.5116 8.01842 -10.118 26.1111 
22.2352 11.5243 -14.1602 32.1109 
25.9822 15.4272 -13.7818 35.8213 
16.8983 13.6137 -10.1149 26.3153 
23.9232 9.7032 -9.86051 30.646 
27.6631 9.83715 -13.8661 35.8987 
20.5996 13.7479 -14.1197 31.4773 
23.9203 13.5982 -13.9669 33.7957 
24.3052 9.71989 -13.9859 33.2431 
20.6388 9.88767 -9.96484 28.034 
20.1175 13.719 -9.92327 28.6288 
12.9764 12.0038 -2.24883 18.5783 
12.9825 8.12703 -1.64938 17.0493 
16.7412 11.4323 -5.72414 23.0267 
16.7268 15.3802 -6.24158 24.7885 
20.4724 11.9708 -6.28092 26.536 
13.0316 8.08041 -5.69919 19.1882 
9.31621 11.4574 -1.71146 15.2766 
16.6726 15.3999 -2.21701 23.076 
13.1576 7.84354 -3.95055 18.2527 
12.8488 11.7939 0.0287976 17.5175 
16.5205 15.607 -3.94391 23.7085 
16.8854 11.6665 -7.98029 24.4123 
13.1699 11.9087 -3.9791 19.4979 
20.206 8.01014 -7.9545 26.2607 
16.506 11.5686 -3.93842 22.0385 
9.48932 15.416 0.0268996 16.9525 
14.8653 15.4366 -1.81366 21.5247 
11.1847 11.5321 -2.15226 16.9267 
14.8412 8.06596 -6.15106 20.8763 
18.5572 11.9182 -5.76858 24.6856 
14.891 11.9597 -1.79754 19.9484 
11.1077 8.01842 -2.10974 15.6434 
14.8313 11.5243 -6.15197 21.7751 
18.5783 15.4272 -5.77358 26.0151 
9.49438 13.6137 -2.10662 16.7142 
16.5193 9.7032 -1.85228 20.6421 
20.2592 9.83715 -5.85787 25.6144 
13.1957 13.7479 -6.11151 21.4181 
16.5164 13.5982 -5.95864 23.7348 
16.9013 9.71989 -5.97769 22.8099 
13.2349 9.88767 -1.95661 17.8825 
12.7136 13.719 -1.91504 19.023 
5.57245 12.0038 5.7594 10.774 
5.57862 8.12703 6.35886 8.43304 
9.33732 11.4323 2.28409 13.7749 
9.32289 15.3802 1.76665 16.3069 
13.0684 11.9708 1.72731 17.3063 
5.62771 8.08041 2.30904 9.11217 
1.91229 11.4574 6.29677 8.19182 
9.2687 15.3999 5.79122 15.7862 
5.75372 7.84354 4.05768 8.61093 
5.44485 11.7939 8.03703 10.7777 
9.11657 15.607 4.06432 15.9183 
9.4815 11.6665 0.0279407 14.738 
5.766 11.9087 4.02913 10.978 
12.802 8.01014 0.0537272 16.19 
9.10204 11.5686 4.06981 13.3152 
2.0854 15.416 8.03513 12.0995 
7.46134 15.4366 6.19457 14.6027 
3.78074 11.5321 5.85597 9.2476 
7.43732 8.06596 1.85717 10.7997 
11.1533 11.9182 2.23965 15.5336 
7.48709 11.9597 6.21069 12.1549 
3.70375 8.01842 5.89849 6.74852 
7.42735 11.5243 1.85626 12.4539 
11.1744 15.4272 2.23465 17.5586 
2.09047 13.6137 5.90161 10.2043 
9.1154 9.7032 6.15595 12.2845 
12.8553 9.83715 2.15036 16.1672 
5.79178 13.7479 1.89672 12.8276 
9.11244 13.5982 2.04959 14.9141 
9.49741 9.71989 2.03054 13.1672 
5.83102 9.88767 6.05162 9.56885 
5.30969 13.719 6.09319 11.918 
-1.83147 12.0038 13.7676 11.1762 
-1.82529 8.12703 14.3671 9.45794 
1.93341 11.4323 10.2923 9.33603 
1.91897 15.3802 9.77488 12.4601 
5.66453 11.9708 9.73554 11.5219 
-1.7762 8.08041 10.3173 5.98142 
-5.49162 11.4574 14.305 11.7787 
1.86479 15.3999 13.7995 14.2761 
-1.6502 7.84354 12.0659 7.28252 
-1.95906 11.7939 16.0453 12.781 
1.71266 15.607 12.0726 13.5125 
2.07758 11.6665 8.03617 8.73798 
-1.63792 11.9087 12.0374 9.93803 
5.39813 8.01014 8.06196 8.5148 
1.69813 11.5686 12.078 10.3341 
-5.31851 15.416 16.0434 15.5984 
0.0574246 15.4366 14.2028 14.1798 
-3.62318 11.5321 13.8642 11.0645 
0.033406 8.06596 9.8654 5.94513 
3.74936 11.9182 10.2479 10.5407 
0.0831776 11.9597 14.2189 11.6381 
-3.70016 8.01842 13.9067 9.17977 
0.023437 11.5243 9.86449 8.59908 
3.77049 15.4272 10.2429 13.3313 
-5.31344 13.6137 13.9098 12.9149 
1.71149 9.7032 14.1642 10.6595 
5.45134 9.83715 10.1586 10.2254 
-1.61213 13.7479 9.90495 10.4048 
1.70853 13.5982 10.0578 10.9279 
2.0935 9.71989 10.0388 8.02238 
-1.57289 9.88767 14.0598 10.0619 
-2.09422 13.719 14.1014 12.6531 
-9.23538 12.0038 21.7759 19.2778 
-9.22921 8.12703 22.3753 18.5927 
-5.47051 11.4323 18.3006 14.9156 
-5.48494 15.3802 17.7831 16.8076 
-1.73938 11.9708 17.7438 14.2794 
-9.18012 8.08041 18.3255 15.0473 
-12.8955 11.4574 22.3132 21.1724 
-5.53913 15.3999 21.8077 19.9075 
-9.05411 7.84354 20.0741 16.4262 
-9.36298 11.7939 24.0535 21.1766 
-5.69125 15.607 20.0808 18.6998 
-5.32633 11.6665 16.0444 13.168 
-9.04183 11.9087 20.0456 17.7458 
-2.00578 8.01014 16.0702 10.9904 
-5.70579 11.5686 20.0863 16.5588 
-12.7224 15.416 24.0516 24.0441 
-7.34649 15.4366 22.211 20.6589 
-11.0271 11.5321 21.8724 19.9306 
-7.37051 8.06596 17.8736 13.8548 
-3.65456 11.9182 18.2561 14.7925 
-7.32074 11.9597 22.2271 19.0012 
-11.1041 8.01842 21.9149 18.9972 
-7.38048 11.5243 17.8727 15.1884 
-3.63343 15.4272 18.2511 16.8832 
-12.7174 13.6137 21.9181 21.6185 
-5.69243 9.7032 22.1724 17.7268 
-1.95257 9.83715 18.1668 13.6249 
-9.01604 13.7479 17.9132 17.0256 
-5.69539 13.5982 18.066 15.947 
-5.31042 9.71989 18.047 13.9011 
-8.97681 9.88767 22.0681 18.6767 
-9.49814 13.719 22.1097 20.3977 
20.3803 19.7995 -10.2571 31.5348 
20.3864 15.9228 -9.65761 29.4961 
24.1451 19.2281 -13.7324 35.8054 
24.1307 23.1759 -14.2498 37.8932 
27.8763 19.7666 -14.2891 39.0963 
20.4355 15.8762 -13.7074 31.8181 
16.7201 19.2532 -9.71969 28.4841 
24.0765 23.1957 -10.2252 35.9022 
20.5615 15.6393 -11.9588 30.782 
20.2527 19.5897 -7.97943 30.2409 
23.9244 23.4028 -11.9521 36.7042 
24.2893 19.4623 -15.9885 37.2784 
20.5738 19.7044 -11.9873 32.5355 
27.6099 15.8059 -15.9627 38.4069 
23.9099 19.3643 -11.9467 34.7495 
16.8932 23.2117 -7.98133 30.0299 
22.2692 23.2324 -9.82189 34.4548 
18.5886 19.3278 -10.1605 30.0062 
22.2451 15.8617 -14.1593 33.3741 
25.9611 19.7139 -13.7768 37.3678 
22.2949 19.7555 -9.80577 32.6752 
18.5116 15.8142 -10.118 28.3191 
22.2352 19.3201 -14.1602 34.7268 
25.9822 23.223 -13.7818 38.9726 
16.8983 21.4095 -10.1149 29.9987 
23.9232 17.4989 -9.86051 32.9489 
27.6631 17.6329 -13.8661 37.9112 
20.5996 21.5437 -14.1197 34.6459 
23.9203 21.394 -13.9669 36.7332 
24.3052 17.5156 -13.9859 35.3811 
20.6388 17.6834 -9.96484 30.5816 
20.1175 21.5148 -9.92327 32.0729 
12.9764 19.7995 -2.24883 22.9668 
12.9825 15.9228 -1.64938 20.3115 
16.7412 19.2281 -5.72414 26.5263 
16.7268 23.1759 -6.24158 29.1451 
20.4724 19.7666 -6.28092 29.7652 
13.0316 15.8762 -5.69919 22.1209 
9.31621 19.2532 -1.71146 20.1786 
16.6726 23.1957 -2.21701 27.7087 
13.1576 15.6393 -3.95055 21.2278 
12.8488 19.5897 0.0287976 22.0434 
16.5205 23.4028 -3.94391 28.2948 
16.8854 19.4623 -7.98029 27.8033 
13.1699 19.7044 -3.9791 23.6856 
20.206 15.8059 -7.9545 28.4549 
16.506 19.3643 -3.93842 25.7144 
9.48932 23.2117 0.0268996 22.8672 
14.8653 23.2324 -1.81366 26.4416 
11.1847 19.3278 -2.15226 21.4821 
14.8412 15.8617 -6.15106 23.5954 
18.5572 19.7139 -5.76858 28.1135 
14.891 19.7555 -1.79754 24.0743 
11.1077 15.8142 -2.10974 19.1024 
14.8313 19.3201 -6.15197 25.4755 
18.5783 23.223 -5.77358 30.2073 
9.49438 21.4095 -2.10662 22.0632 
16.5193 17.4989 -1.85228 23.9279 
20.2592 17.6329 -5.85787 28.3662 
13.1957 21.5437 -6.11151 25.8505 
16.5164 21.394 -5.95864 27.7583 
16.9013 17.5156 -5.97769 25.8264 
13.2349 17.6834 -1.95661 21.659 
12.7136 21.5148 -1.91504 23.8943 
5.57245 19.7995 5.7594 17.2743 
5.57862 15.9228 6.35886 13.8922 
9.33732 19.2281 2.28409 19.0567 
9.32289 23.1759 1.76665 22.3803 
13.0684 19.7666 1.72731 21.9389 
5.62771 15.8762 2.30904 14.2892 
1.91229 19.2532 6.29677 15.5212 
9.2687 23.1957 5.79122 22.0109 
5.75372 15.6393 4.05768 13.8422 
5.44485 19.5897 8.03703 17.1816 
9.11657 23.4028 4.06432 22.1786 
9.4815 19.4623 0.0279407 19.8563 
5.766 19.7044 4.02913 17.3596 
12.802 15.8059 0.0537272 19.5492 
9.10204 19.3643 4.06981 18.7838 
2.0854 23.2117 8.03513 19.5428 
7.46134 23.2324 6.19457 21.1916 
3.78074 19.3278 5.85597 16.1395 
7.43732 15.8617 1.85717 15.4129 
11.1533 19.7139 2.23965 20.5495 
7.48709 19.7555 6.21069 18.1487 
3.70375 15.8142 5.89849 12.8735 
7.42735 19.3201 1.85626 18.1644 
11.1744 23.223 2.23465 23.3239 
2.09047 21.4095 5.90161 17.6508 
9.1154 17.4989 6.15595 17.2442 
12.8553 17.6329 2.15036 20.2465 
5.79178 21.5437 1.89672 19.3407 
9.11244 21.394 2.04959 20.7271 
9.49741 17.5156 2.03054 17.891 
5.83102 17.6834 6.05162 15.5207 
5.30969 21.5148 6.09319 18.7377 
-1.83147 19.7995 13.7676 17.5279 
-1.82529 15.9228 14.3671 14.5372 
1.93341 19.2281 10.2923 16.1423 
1.91897 23.1759 9.77488 19.754 
5.66453 19.7666 9.73554 17.7359 
-1.7762 15.8762 10.3173 12.5271 
-5.49162 19.2532 14.305 17.6788 
1.86479 23.1957 13.7995 20.9543 
-1.6502 15.6393 12.0659 13.0573 
-1.95906 19.5897 16.0453 18.5041 
1.71266 23.4028 12.0726 20.5205 
2.07758 19.4623 8.03617 15.919 
-1.63792 19.7044 12.0374 16.7213 
5.39813 15.8059 8.06196 13.8765 
1.69813 19.3643 12.078 16.8027 
-5.31851 23.2117 16.0434 21.8822 
0.0574246 23.2324 14.2028 20.9024 
-3.62318 19.3278 13.8642 17.245 
0.033406 15.8617 9.8654 12.5008 
3.74936 19.7139 10.2479 17.0908 
0.0831776 19.7555 14.2189 17.8067 
-3.70016 15.8142 13.9067 14.2987 
0.023437 19.3201 9.86449 15.7731 
3.77049 23.223 10.2429 20.3328 
-5.31344 21.4095 13.9098 19.3447 
1.71149 17.4989 14.1642 16.1269 
5.45134 17.6329 10.1586 15.9091 
-1.61213 21.5437 9.90495 17.8262 
1.70853 21.394 10.0578 18.0721 
2.0935 17.5156 10.0388 14.5283 
-1.57289 17.6834 14.0598 15.8294 
-2.09422 21.5148 14.1014 19.2137 
-9.23538 19.7995 21.7759 23.5362 
-9.22921 15.9228 22.3753 21.6233 
-5.47051 19.2281 18.3006 19.8969 
-5.48494 23.1759 17.7831 22.7478 
-1.73938 19.7666 17.7438 19.6395 
-9.18012 15.8762 18.3255 18.6433 
-12.8955 19.2532 22.3132 24.9414 
-5.53913 23.1957 21.8077 25.1313 
-9.05411 15.6393 20.0741 19.6794 
-9.36298 19.5897 24.0535 25.0499 
-5.69125 23.4028 20.0808 24.2525 
-5.32633 19.4623 16.0444 18.7206 
-9.04183 19.7044 20.0456 22.2655 
-2.00578 15.8059 16.0702 15.5191 
-5.70579 19.3643 20.0863 21.2068 
-12.7224 23.2117 24.0516 28.5244 
-7.34649 23.2324 22.211 25.7417 
-11.0271 19.3278 21.8724 23.9206 
-7.37051 15.8617 17.8736 17.6884 
-3.65456 19.7139 18.2561 19.9952 
-7.32074 19.7555 22.2271 23.2955 
-11.1041 15.8142 21.9149 21.9335 
-7.38048 19.3201 17.8727 20.1379 
-3.63343 23.223 18.2511 22.8198 
-12.7174 21.4095 21.9181 25.9766 
-5.69243 17.4989 22.1724 21.4637 
-1.95257 17.6329 18.1668 18.2806 
-9.01604 21.5437 17.9132 22.3469 
-5.69539 21.394 18.066 21.4823 
-5.31042 17.5156 18.047 18.4378 
-8.97681 17.6834 22.0681 22.3192 
-9.49814 21.5148 22.1097 25.0026 
27.8171 -11.3835 -10.2571 37.1566 
27.8233 -15.2602 -9.65761 38.7047 
31.582 -11.9549 -13.7324 41.9503 
31.5675 -8.00709 -14.2498 40.8322 
35.3131 -11.4165 -14.2891 45.0359 
27.8723 -15.3069 -13.7074 40.547 
24.1569 -11.9298 -9.71969 34.3095 
31.5133 -7.98733 -10.2252 38.9654 
27.9984 -15.5437 -11.9588 39.948 
27.6895 -11.5934 -7.97943 36.2197 
31.3612 -7.78026 -11.9521 39.514 
31.7261 -11.7207 -15.9885 43.0699 
28.0106 -11.4786 -11.9873 38.1252 
35.0467 -15.3771 -15.9627 47.0941 
31.3467 -11.8187 -11.9467 40.9064 
24.33 -7.97131 -7.98133 31.9889 
29.706 -7.95063 -9.82189 37.2464 
26.0254 -11.8552 -10.1605 35.9069 
29.682 -15.3213 -14.1593 42.1108 
33.3979 -11.4691 -13.7768 43.2535 
29.7317 -11.4276 -9.80577 38.5365 
25.9484 -15.3688 -10.118 37.5352 
29.672 -11.8629 -14.1602 40.6154 
33.419 -7.96002 -13.7818 42.1288 
24.3351 -9.77352 -10.1149 33.6732 
31.36 -13.6841 -9.86051 40.8408 
35.0999 -13.5501 -13.8661 45.4628 
28.0364 -9.63935 -14.1197 38.4836 
31.3571 -9.78902 -13.9669 41.0939 
31.742 -13.6674 -13.9859 42.8812 
28.0757 -13.4996 -9.96484 38.1735 
27.5543 -9.66826 -9.92327 36.1103 
20.4132 -11.3835 -2.24883 28.3463 
20.4193 -15.2602 -1.64938 30.5035 
24.178 -11.9549 -5.72414 32.731 
24.1636 -8.00709 -6.24158 31.1559 
27.9092 -11.4165 -6.28092 35.7149 
20.4684 -15.3069 -5.69919 31.7944 
16.753 -11.9298 -1.71146 25.7459 
24.1094 -7.98733 -2.21701 29.7823 
20.5944 -15.5437 -3.95055 31.4454 
20.2856 -11.5934 0.0287976 27.8054 
23.9573 -7.78026 -3.94391 30.0771 
24.3222 -11.7207 -7.98029 33.5893 
20.6067 -11.4786 -3.9791 29.0836 
27.6428 -15.3771 -7.9545 37.9779 
23.9428 -11.8187 -3.93842 31.889 
16.9261 -7.97131 0.0268996 23.1145 
22.3021 -7.95063 -1.81366 28.0927 
18.6215 -11.8552 -2.15226 27.2083 
22.278 -15.3213 -6.15106 33.2582 
25.994 -11.4691 -5.76858 33.9817 
22.3278 -11.4276 -1.79754 29.7799 
18.5445 -15.3688 -2.10974 29.3547 
22.2681 -11.8629 -6.15197 31.3453 
26.0151 -7.96002 -5.77358 32.5321 
16.9312 -9.77352 -2.10662 24.7109 
23.9561 -13.6841 -1.85228 32.3228 
27.696 -13.5501 -5.85787 36.3885 
20.6325 -9.63935 -6.11151 28.9616 
23.9532 -9.78902 -5.95864 31.6192 
24.3381 -13.6674 -5.97769 33.821 
20.6717 -13.4996 -1.95661 29.6812 
20.1504 -9.66826 -1.91504 27.1311 
13.0093 -11.3835 5.7594 21.5481 
13.0154 -15.2602 6.35886 24.5108 
16.7741 -11.9549 2.28409 24.9141 
16.7597 -8.00709 1.76665 22.6276 
20.5053 -11.4165 1.72731 27.5823 
13.0645 -15.3069 2.30904 24.8114 
9.3491 -11.9298 6.29677 19.6586 
16.7055 -7.98733 5.79122 22.2164 
13.1905 -15.5437 4.05768 24.8933 
12.8817 -11.5934 8.03703 21.7328 
16.5534 -7.78026 4.06432 22.041 
16.9183 -11.7207 0.0279407 25.2856 
13.2028 -11.4786 4.02913 21.8193 
20.2389 -15.3771 0.0537272 30.078 
16.5389 -11.8187 4.06981 24.462 
9.52221 -7.97131 8.03513 16.8276 
14.8981 -7.95063 6.19457 20.7124 
11.2175 -11.8552 5.85597 20.7165 
14.8741 -15.3213 1.85717 26.0153 
18.5901 -11.4691 2.23965 26.0105 
14.9239 -11.4276 6.21069 22.946 
11.1406 -15.3688 5.89849 23.5032 
14.8642 -11.8629 1.85626 23.5235 
18.6112 -7.96002 2.23465 24.0777 
9.52728 -9.77352 5.90161 18.0353 
16.5522 -13.6841 6.15595 25.6798 
20.2921 -13.5501 2.15036 28.6231 
13.2286 -9.63935 1.89672 20.8439 
16.5493 -9.78902 2.04959 23.4252 
16.9342 -13.6674 2.03054 26.2073 
13.2678 -13.4996 6.05162 23.2944 
12.7465 -9.66826 6.09319 20.1529 
5.60534 -11.3835 13.7676 19.0532 
5.61151 -15.2602 14.3671 22.5609 
9.37021 -11.9549 10.2923 20.1991 
9.35578 -8.00709 9.77488 17.0653 
13.1013 -11.4165 9.73554 21.9979 
5.66061 -15.3069 10.3173 21.4063 
1.94519 -11.9298 14.305 18.654 
9.3016 -7.98733 13.7995 18.3861 
5.78661 -15.5437 12.0659 22.1007 
5.47775 -11.5934 16.0453 20.2334 
9.14947 -7.78026 12.0726 17.4608 
